0.16243119537830353,0.4875768795609474,-0.008868731558322906,-0.7139413986460944,0.3030446969714965,0.6312302202340382
0.17009419202804565,0.4614137252792716,0.03445880673825741,-0.5807517329712109,0.29524101076774945,0.7586568197886138
0.18137657642364502,0.33060916140675545,0.04225665144622326,0.7960673924026215,-0.6026754333009794,0.05530848803545023
0.19686341285705566,0.33370909094810486,0.023150901775807142,-0.12474464372149517,-0.01416830643879471,-0.9920877143455883
0.20052091777324677,0.33495083823800087,0.018952210899442434,-0.2705372795488653,-0.0852509499571692,-0.9589274508041259
0.20355655252933502,0.3376639150083065,0.017664580140262842,0.42079274638228725,-0.40076297547389345,0.8138319863960641
0.24729938805103302,0.3217882961034775,0.0709588648751378,-0.046891426641622755,-0.1871113741762481,-0.9812188990033719
0.2513379007577896,0.3164540082216263,0.05639592278748751,-0.09039880790113265,-0.20698917605861042,-0.9741578601667349
0.2557611018419266,0.31722962856292725,0.0446866424754262,-0.1909809779334418,-0.15768057103879377,-0.9688462744855173
0.2532230019569397,0.3182224705815315,0.046037232503294945,-0.17710704853141218,-0.16120070276057236,-0.9709003176382165
0.25252512097358704,0.3190404027700424,0.03647085977718234,-0.18423956183629786,-0.16852757114237268,-0.9683254833057021
0.250690296292305,0.336568720638752,0.006828812882304192,0.2725638586904897,-0.2595471459961258,-0.9264686837346509
0.24375911056995392,0.3589516244828701,-0.026745498180389404,0.17083374648699393,-0.27555292702991835,-0.9459843632251339
0.234832763671875,0.37815089896321297,-0.027037253603339195,0.1168189321269869,-0.22346322501670282,-0.9676866869818169
0.22604678571224213,0.3893960639834404,-0.023883173242211342,0.06146010027929714,-0.10333395385690614,-0.9927460652422438
0.22463497519493103,0.38493528217077255,-0.01714373007416725,0.07364658867978209,-0.15394209604084824,-0.9853314219298912
0.22244149446487427,0.3823986630886793,-0.01802266761660576,0.05215070371711546,-0.16459679043402342,-0.9849813199653218
0.2211993932723999,0.38040693663060665,-0.05700111389160156,0.05586867620076178,-0.15750394274264426,-0.9859367114780219
0.2209409922361374,0.3795477878302336,-0.04430842772126198,0.0768987426553361,-0.16369341616013197,-0.9835095570882137
0.22342556715011597,0.37949142791330814,-0.046346232295036316,0.012822838688968845,-0.11245510601566978,-0.993574065653367
0.22439153492450714,0.37833720073103905,-0.03612184897065163,0.05142274130528746,-0.1579935306642869,-0.9861002717497255
0.224218487739563,0.3791463915258646,-0.040301550179719925,0.005067838501481144,-0.16510168160762298,-0.9862635305755039
0.22600068151950836,0.3788668308407068,-0.03673208877444267,0.02998583294604233,-0.11095082543548984,-0.9933734263396194
0.22453740239143372,0.3794745486229658,-0.038202088326215744,0.025717555911646133,-0.15348405771485055,-0.9878164056874718
0.22458599507808685,0.38033671490848064,-0.03590577095746994,0.023190303843802766,-0.15048881747185833,-0.9883396812956331
0.22258485853672028,0.38074583373963833,-0.03825566545128822,0.027968473354494094,-0.14147037836863222,-0.9895473190011962
0.2213929295539856,0.3820999786257744,-0.054038818925619125,-0.015304134805662716,-0.1371249387917884,-0.9904355277448392
0.2215137481689453,0.3823522012680769,-0.05255473032593727,-0.00048294909347047093,-0.1084715985939611,-0.9940994311730812
0.22101818025112152,0.38307327032089233,-0.060651786625385284,0.0392186327729554,-0.1278200553934622,-0.9910216608544095
0.22116494178771973,0.38257340155541897,-0.05869721248745918,0.04125644455008438,-0.1718119408532697,-0.9842654940428007
0.22076831758022308,0.3840004038065672,-0.06422946229577065,0.027075664384897148,-0.14479004657012282,-0.9890918818857721
0.22070036828517914,0.3840348403900862,-0.06287091225385666,0.07535244614184661,-0.13424499088934594,-0.9880790916123869
0.22106829285621643,0.3836779445409775,-0.066026471555233,-0.002512523394363852,-0.05532696293943055,-0.9984651292849899
0.2203429639339447,0.38310402259230614,-0.07120455801486969,0.015961178197853067,-0.13559043611911456,-0.9906363986971025
0.22098256647586823,0.38308494351804256,-0.05820910260081291,0.021905960224055308,-0.099218046459605,-0.9948245614998666
0.2217535823583603,0.3817250393331051,-0.05768823251128197,0.007007284908168099,-0.08863682417407748,-0.9960393623539933
0.22163739800453186,0.3808757960796356,-0.06663849949836731,0.0017992647933070913,-0.11752694889753891,-0.9930680635933464
0.22127825021743774,0.38101871125400066,-0.06548158079385757,0.004978703439050086,-0.10522938579862456,-0.9944355126786806
0.22204414010047913,0.3806971665471792,-0.05847292020916939,0.013835879583268488,-0.11036433604534888,-0.993794889182585
0.22292757034301758,0.38077686727046967,-0.05407445505261421,0.048540350314797226,-0.13538446240588864,-0.9896033961796944
0.2227821946144104,0.38065123930573463,-0.05534250661730766,0.025234101560043163,-0.16949279798690356,-0.985208318859026
0.22265298664569855,0.3806222025305033,-0.06380483508110046,0.037025639056546336,-0.14243462209061572,-0.9891114600904986
0.22270157933235168,0.3802785091102123,-0.0636976920068264,0.038689664051825376,-0.13945315200002834,-0.9894725505504505
0.2232743799686432,0.37966799177229404,-0.0669681653380394,-0.02255699625293888,-0.1226782823450325,-0.9921901133154459
0.22309668362140656,0.3798654116690159,-0.06391100212931633,0.05643036736193623,-0.15343307034833653,-0.9865464543359725
0.2231387048959732,0.37967262975871563,-0.06859295070171356,0.027411278722678453,-0.12887385712627525,-0.9912820742594834
0.22393843531608582,0.37771386094391346,-0.056832220405340195,0.01786001961824274,-0.08161750806744604,-0.9965036889425429
0.22464297711849213,0.3755743019282818,-0.04521933197975159,0.03869298114021205,-0.14641992217411462,-0.9884655075423773
0.22504262626171112,0.3750789575278759,-0.04649031162261963,0.013416069018721787,-0.127294510400256,-0.9917742266836963
0.229707732796669,0.37475911527872086,-0.03422791138291359,0.027107624904261628,-0.10976643756724558,-0.9935876940944096
0.23437824845314026,0.37299005687236786,-0.030461322516202927,0.020069264630316126,-0.06543995884525504,-0.9976546679104598
0.23965686559677124,0.37196528911590576,-0.02411031350493431,0.022945836268079195,-0.05530044144880488,-0.9982060657867822
0.2539430260658264,0.3592260740697384,-0.02308916300535202,0.03857469313275046,-0.13399618571554583,-0.9902307888888323
0.26529183983802795,0.35252367705106735,-0.028347928076982498,0.01111380065679203,-0.09564845721949074,-0.9953531313390701
0.2729627341032028,0.3502180203795433,-0.025150705128908157,-0.007680588266928069,-0.13588829900742266,-0.990694392210203
0.28615833818912506,0.3328018896281719,-0.02165086194872856,-0.01874881816848702,-0.12954097880044835,-0.9913968007960823
0.29857976734638214,0.3175915777683258,0.028866124339401722,-0.008613218140338405,-0.13220492361400404,-0.9911849830609231
0.31820695102214813,0.30683836340904236,0.025750762317329645,-0.0024440535402157266,-0.12375836828934399,-0.9923093735729053
0.32858680188655853,0.2814897149801254,0.028280332451686263,-0.012731848361258107,-0.1425170656680662,-0.98971045565391
0.3313731551170349,0.26912251859903336,0.018637455068528652,-0.023762582543919313,-0.157104615457223,-0.9872960444936875
0.34128066897392273,0.24944759905338287,0.03146688127890229,-0.0899254994373331,-0.16215306906317736,-0.9826595477297001
0.34528443217277527,0.23750951141119003,0.030067145824432373,-0.07950876733354945,-0.1910206609622135,-0.9783605996781853
0.35161909461021423,0.2272539734840393,0.026277919067069888,-0.10173186844553715,-0.18436285592297616,-0.9775791345453848
0.35406623780727386,0.18301507830619812,0.020340875955298543,-0.10549495568731215,-0.20686778859132232,-0.9726646556588082
0.3566737771034241,0.17379745841026306,0.010707887820899487,-0.11678041930616982,-0.2166097515498644,-0.9692484455495306
0.3542965054512024,0.1413564831018448,-0.0389886237680912,-0.11049215036794681,-0.16773387139280388,-0.9796207598324207
0.35412459075450897,0.12345857918262482,-0.046285733580589294,-0.14636903464650908,-0.18095484626788214,-0.9725386621151965
0.35292915999889374,0.10527679324150085,-0.07919403165578842,-0.15120708536795968,-0.18487081155108448,-0.9710608633710711
0.3546753376722336,0.08459140360355377,-0.07632583752274513,-0.1862637022364214,-0.2001650064147994,-0.9618938628747691
0.3530900180339813,0.0713924765586853,-0.08184938970953226,-0.22850143094318082,-0.19504944743891806,-0.9538043872360263
0.35240471363067627,0.054731279611587524,-0.07973615638911724,-0.23938981484088015,-0.19206806781071872,-0.9517365044369719
0.35611437261104584,0.03064662218093872,-0.07799141854047775,-0.23503463489423215,-0.19317451059631494,-0.9525976741815032
0.35618798434734344,0.022302016615867615,-0.07455661706626415,-0.2458370998283995,-0.18270793569611302,-0.9519358857515702
0.35472142696380615,0.010374486446380615,-0.07174355816096067,-0.2646438072441658,-0.18844668591183678,-0.9457544617162313
0.35277581214904785,0.005177587270736694,-0.087521743029356,-0.2728311578293781,-0.17758820176123474,-0.9455292644401293
0.34839798510074615,-0.0028723478317260742,-0.09627311211079359,-0.2631926719174756,-0.16898430929025537,-0.9498283637913932
0.3437410742044449,-0.01279190182685852,-0.11024459730833769,-0.23678620669074193,-0.14781961191971094,-0.9602508290300588
0.3278641402721405,-0.010343760251998901,-0.12766958121210337,-0.2704699654779729,-0.17263627835756623,-0.947123388566238
0.32376065850257874,-0.025335371494293213,-0.12385240476578474,-0.23983903196803727,-0.14719797031661877,-0.9595884515141387
0.31796084344387054,-0.031706541776657104,-0.1304436270147562,-0.302336178373234,-0.16130977307984318,-0.9394530282859264
0.31037868559360504,-0.040409401059150696,-0.14232133701443672,-0.27542239867418566,-0.15158392310924468,-0.9492970117741699
0.29782524704933167,-0.043090835213661194,-0.14763253182172775,-0.281741176245458,-0.13346121980887354,-0.9501631504194179
0.2961072325706482,-0.04230664670467377,-0.1450720578432083,-0.3118157616027013,-0.1449095611461105,-0.9390272359759162
0.29588015377521515,-0.044921502470970154,-0.14441123232245445,-0.35094600982635493,-0.16766874087650205,-0.921262227338041
0.28929702937602997,-0.045220017433166504,-0.14793819934129715,-0.3628447372651304,-0.1713710551853121,-0.9159561441923251
0.29128824174404144,-0.0427657812833786,-0.14630529657006264,-0.2750091638857036,-0.12413263562551292,-0.9533944873721212
0.29221174120903015,-0.04106445610523224,-0.16054750233888626,-0.30817380614727885,-0.14805105457494233,-0.9397392140609792
0.29166577756404877,-0.0415046364068985,-0.15553082525730133,-0.2873615459051205,-0.1261798731269018,-0.949474581836027
0.2926291823387146,-0.04021075367927551,-0.15167221799492836,-0.2992275393463745,-0.13347352174604418,-0.9448003485866324
0.293052613735199,-0.03971453011035919,-0.14292620494961739,-0.32565352767759986,-0.13297119516757083,-0.9360921114755976
0.2935646176338196,-0.03934237360954285,-0.14126133918762207,-0.3382275801085099,-0.14564228236778695,-0.9297259970769041
0.2958705723285675,-0.04053817689418793,-0.14093927666544914,-0.305708128800672,-0.14761455310354654,-0.940612823481177
0.2975661903619766,-0.040020063519477844,-0.14195656031370163,-0.2879305094082767,-0.14229839717947498,-0.9470201623577202
0.2990581840276718,-0.03989601135253906,-0.14076587557792664,-0.318598274430062,-0.17564385014594655,-0.9314743031539277
0.2974882572889328,-0.03953990340232849,-0.1457487940788269,-0.3152505169040041,-0.13726114642032242,-0.9390295465400101
0.29959674179553986,-0.038803860545158386,-0.14255153387784958,-0.29618134613472913,-0.1531805528082285,-0.9427684384000058
0.30117732286453247,-0.03744865953922272,-0.1317588947713375,-0.3254270471954356,-0.17544094531023632,-0.9291489179148359
0.3018340468406677,-0.03560023009777069,-0.13184428960084915,-0.30961669484253995,-0.16135758564442815,-0.937070558618604
0.3093239367008209,-0.03180660307407379,-0.1148984394967556,-0.2694551036078973,-0.14852076794677177,-0.9514912131113763
0.31180545687675476,-0.02445034682750702,-0.12786885164678097,-0.30492774355933794,-0.1541277660126493,-0.9398211015676126
0.31220853328704834,-0.020031854510307312,-0.12688900157809258,-0.2493076637669038,-0.13145309000495778,-0.9594611893741387
0.3206179738044739,-0.013132035732269287,-0.09401707164943218,-0.30727343407006114,-0.18959499883207265,-0.9325431749429396
0.3312467932701111,-0.0075872838497161865,-0.08328434638679028,-0.24961169171599754,-0.13640781668803623,-0.9586902059086037
0.3402169495820999,0.004164397716522217,-0.06165269948542118,-0.29036464586218125,-0.20422191535547854,-0.9348699277021749
0.34943942725658417,0.020305290818214417,-0.07062124088406563,-0.28090414156473986,-0.18709577013525272,-0.9413224931176738
0.3509032428264618,0.03378798067569733,-0.07203535549342632,-0.24956831445659347,-0.19668871864648682,-0.9481715057817853
0.3651040345430374,0.04280710220336914,-0.019128580577671528,-0.2394211047767591,-0.20184872942371782,-0.9497023876022989
0.3627937138080597,0.06539110839366913,-0.04319080989807844,-0.2154127673970439,-0.18662876102773465,-0.9585233670597706
0.36311817169189453,0.08125819265842438,-0.061696107033640146,-0.2045899831321664,-0.21053273771285483,-0.9559387559635346
0.36382976174354553,0.11438089609146118,-0.06369162956252694,-0.16432426620143462,-0.18385579154100923,-0.9691205206031854
0.3632805496454239,0.130990132689476,-0.07240742444992065,-0.16584372843802556,-0.17279883251234263,-0.9708946499080866
0.36377544701099396,0.1519852876663208,-0.06353582814335823,-0.1719559720671379,-0.18713780821280437,-0.9671662651311581
0.3648490309715271,0.18315155804157257,-0.035255514085292816,-0.10781257911409155,-0.15957122218246017,-0.981281546160919
0.37150436639785767,0.18739053606987,0.021939820144325495,-0.11323579910834017,-0.17063045370417632,-0.9788068767989949
0.37207041680812836,0.2182295024394989,0.014122564811259508,-0.09944100736379395,-0.19696765065010274,-0.9753539002084592
0.37197545170783997,0.23450756072998047,0.0138236777856946,-0.06297689751665142,-0.13928171201406359,-0.9882482051982734
0.3714568763971329,0.24214500933885574,0.0183518398553133,-0.09863295340096241,-0.1435365587138528,-0.9847176228828183
0.36368200182914734,0.2612886428833008,0.02559688314795494,-0.07958565531091055,-0.12570644465703018,-0.9888700689374829
0.35709719359874725,0.27955517917871475,0.017036798875778913,-0.0409227243739277,-0.11825935101383948,-0.9921391316380989
0.35006067156791687,0.2992643415927887,0.014901633374392986,-0.02896405595526146,-0.11647441188551334,-0.992771270151662
0.33831751346588135,0.32414525747299194,0.011230685748159885,-0.04078388996465136,-0.14826959866395914,-0.988105662584412
0.326580673456192,0.3327813521027565,0.00024318695068359375,-0.038102890025062904,-0.1591331999209811,-0.9865215630966446
0.3170827180147171,0.34224995970726013,0.0026319194585084915,-0.06715856220599481,-0.11463634925852116,-0.9911348217831426
0.3081233948469162,0.3499092236161232,-0.0027585355564951897,0.05613999737931784,-0.16521034087443018,-0.9846592527176112
0.2836993932723999,0.3591105379164219,-0.00949048437178135,0.03835388918100098,-0.17187773111317126,-0.9843713855715637
0.2743949890136719,0.3711525648832321,0.00357726588845253,0.018115989140304347,-0.13296512306226116,-0.9909551387356071
0.2689005881547928,0.3784422557801008,0.005307180806994438,0.07389100343262114,-0.20099897323380767,-0.976800661532677
0.2522500604391098,0.38691324181854725,-0.002455666661262512,-0.13416403968079105,-0.1718319377023712,-0.9759476398055275
0.24079641699790955,0.3867569249123335,0.00041159801185131073,-0.14866358654460698,-0.2213198717896847,-0.9638032228555222
0.23029272258281708,0.3874360993504524,-0.0006392914801836014,-0.01641158904843637,-0.10065366786305684,-0.9947861573678128
0.20861485600471497,0.39940352737903595,-0.0029008425772190094,0.005681266065523964,-0.19674162650883167,-0.9804389096800228
0.1970069408416748,0.4058487247675657,-0.005843739956617355,0.10365071901527348,-0.18226345401435456,-0.9777712215944864
0.18929998576641083,0.4128328347578645,-0.008406221866607666,0.1145459893290545,-0.1543677427868692,-0.9813510158528981
0.18208147585391998,0.41926878318190575,-0.0005996804684400558,0.13592424161750769,-0.08097991368547262,-0.98740409869526
0.17623402178287506,0.4341410604538396,-0.014674272388219833,0.28134080975226167,-0.17689825754681845,-0.9431618923837206
0.17678837478160858,0.43815089855343103,-0.014528244733810425,0.1523724368197169,-0.14460618695983024,-0.9776869085707142
0.17600204050540924,0.4357001150492579,-0.012768298387527466,0.3767229029408685,-0.17081962552495356,-0.9104397343785692
0.1744833141565323,0.4354207497090101,-0.003238379955291748,0.2307685442876042,-0.11151190227865343,-0.9665976280839801
0.17573262751102448,0.43536932789720595,0.0016938857734203339,0.1971871213033068,-0.10369017938920849,-0.9748669580462498
0.17668332159519196,0.4341726608108729,0.007945287972688675,0.1560390643203973,-0.13469899122471785,-0.9785233733381427
0.17656050622463226,0.43294490734115243,0.009938541799783707,0.14597911320701643,-0.11628629309022713,-0.9824294359121304
0.17616546154022217,0.4355497397482395,0.0067779310047626495,0.036452377471501644,-0.1275303601444833,-0.9911645834159397
0.17626972496509552,0.43507624813355505,0.008139710873365402,0.15788128246035868,-0.17084477552875643,-0.9725664827266058
0.17696237564086914,0.4333677615504712,0.02101963758468628,0.07575084230424863,-0.18576947068723282,-0.9796690837475592
0.17725631594657898,0.4328535676468164,0.012236740440130234,0.09418924574951548,-0.06160323654190721,-0.9936465303279125
0.17778104543685913,0.43242438114248216,0.011230817064642906,0.0672255787283696,-0.12997911980764254,-0.9892351338173682
0.17985396087169647,0.43181983777321875,0.005921527743339539,0.07744598271023578,-0.13807054332381954,-0.9873898140189169
0.185873880982399,0.43013617349788547,-0.008049964904785156,0.1550406772815059,-0.12242521027606879,-0.9802930461229195
0.19444966316223145,0.42095894925296307,0.0008022673428058624,0.07971995594780643,-0.18733424610162588,-0.9790559784104356
0.2012457400560379,0.4120736578479409,-0.006445974111557007,0.11203991104065525,-0.17858301984547909,-0.9775250192996962
0.2214064747095108,0.40635345969349146,-0.010192126035690308,0.0597137698675178,-0.15369414000253465,-0.9863125148841468
0.23035022616386414,0.3979599252343178,-0.030278977006673813,-0.0403980585533517,-0.13658677052756682,-0.9898040467597462
0.23934903740882874,0.390389921143651,-0.026038972660899162,-0.025377992558461862,-0.10861491444331825,-0.9937599095627541
0.2590230256319046,0.3813454359769821,-0.015111610293388367,0.06739624033100572,-0.12591393503417186,-0.9897491741615427
0.26628629863262177,0.3790956661105156,-0.011967062950134277,0.05323844055232943,-0.16721651412380073,-0.9844817448037525
0.27067986130714417,0.3637918718159199,-0.03437427617609501,0.03473996641852616,-0.15229471572268738,-0.987724381746338
0.2848927825689316,0.3645922280848026,-0.021752726286649704,0.019230538753508716,-0.15299990899978616,-0.9880390752522427
0.2921924591064453,0.35513193160295486,-0.017509419471025467,0.03262236777309046,-0.1831528536730774,-0.9825430338220741
0.31302136182785034,0.3419264629483223,-0.01417521946132183,-0.07074825872596194,-0.15323271239928626,-0.9856543104648819
0.32343339920043945,0.3270046338438988,0.004391621798276901,0.17392263423534446,-0.15126522875090467,0.9730723240703001
0.3391633778810501,0.3117176815867424,0.011572257615625858,-0.021427531860057095,-0.18398414991899445,-0.9826956260495777
0.3493402749300003,0.29415512830018997,0.006930200383067131,-0.06526294844354619,-0.14345122368394062,-0.987503161505843
0.36126643419265747,0.27672041952610016,0.007930022664368153,-0.08980117228724652,-0.14937431962866893,-0.984694400355414
0.3727105110883713,0.2512771636247635,0.008003170602023602,-0.07538068671899315,-0.17280858230167137,-0.9820666708287475
0.37942424416542053,0.23905504494905472,0.007135987281799316,-0.1253591483121478,-0.19139190206759585,-0.973475332896217
0.3840721994638443,0.2221311777830124,-0.003061823546886444,-0.0996864280060999,-0.1838885430553921,-0.9778791437618197
0.3892591744661331,0.20436492562294006,-0.004027513787150383,-0.15551502493659458,-0.1406008597684898,-0.9777762910049167
0.38639895617961884,0.20177307724952698,-0.006289089098572731,-0.162627634095177,-0.13707890772066678,-0.9771190437642253
0.3900420814752579,0.18765361607074738,-0.014274908229708672,-0.15300524757612452,-0.15127579823231393,-0.9765782237400878
0.3931504338979721,0.17118211090564728,-0.020255131646990776,-0.12509134791646254,-0.15566419982562207,-0.9798575465694447
0.38819682598114014,0.1456092745065689,-0.05442846566438675,-0.1799788160696268,-0.15068740784877419,-0.97206014776967
0.38570623099803925,0.12834449112415314,-0.06366264447569847,-0.15946587955854685,-0.16964394315640222,-0.9725181570577314
0.38426291942596436,0.11104243993759155,-0.07019432261586189,-0.19351263198249258,-0.12601626325132004,-0.9729711006290898
0.3851117491722107,0.10141266882419586,-0.07173341512680054,-0.20485735348753364,-0.16728764623520936,-0.9643901223774367
0.3838626593351364,0.09197872877120972,-0.07508196122944355,-0.18577753734704638,-0.14566817456053233,-0.9717342689940851
0.3867386281490326,0.0751611590385437,-0.07351898215711117,-0.16561260921437995,-0.13831564235951593,-0.9764431610431197
0.3871212899684906,0.06708355247974396,-0.0846260841935873,-0.15980150933344514,-0.14166047638921755,-0.9769318231299114
0.3877197206020355,0.053257912397384644,-0.08132157102227211,-0.17948235899866583,-0.15520158785139937,-0.9714414804488629
0.38902467489242554,0.04652002453804016,-0.08393856137990952,-0.17717525386544325,-0.13589304496646665,-0.9747522812219819
0.3871592730283737,0.03984805941581726,-0.0835113637149334,-0.1801360283375256,-0.1324508852625723,-0.9746834225983034
0.38601580262184143,0.030982688069343567,-0.11304239928722382,-0.19847703052489934,-0.1401987031257055,-0.9700263872678354
0.3851347267627716,0.02003800868988037,-0.11197243444621563,-0.1994881871352196,-0.18077024014873233,-0.9630818155640117
0.383756548166275,0.00939062237739563,-0.1189794410020113,-0.18592726998954046,-0.16609596860479825,-0.9684230374621777
0.3828916549682617,0.010791867971420288,-0.11335524544119835,-0.22409226159293733,-0.17721243282277133,-0.9583206206417544
0.38157518208026886,0.011820614337921143,-0.11982627213001251,-0.18667895485734814,-0.12584764523173358,-0.974327120634028
0.37956488132476807,0.01004105806350708,-0.12050278298556805,-0.20278593090400057,-0.15234589642491037,-0.9672996402717662
0.38015832006931305,0.009146347641944885,-0.1253935508430004,-0.18855966992373155,-0.17019422261681372,-0.9672017253221336
0.3798982501029968,0.009886234998703003,-0.12486525811254978,-0.18841319369972026,-0.16729068907363562,-0.9677366861854209
0.37994174659252167,0.011587858200073242,-0.1339025255292654,-0.20426631761307917,-0.13346858106951026,-0.9697738959964246
0.3800155371427536,0.013653412461280823,-0.13279567286372185,-0.17366635554285323,-0.14384761266682328,-0.9742421984714678
0.3828470706939697,0.012011036276817322,-0.1312412116676569,-0.20323551691901973,-0.18627441586254423,-0.9612477134733413
0.38599535822868347,0.012189239263534546,-0.1184459701180458,-0.2034064044477475,-0.1608713032297253,-0.9657878951544222
0.38699695467948914,0.014070600271224976,-0.1140192374587059,-0.15598533059498504,-0.18097573953119336,-0.9710388037253253
0.38994114100933075,0.014042705297470093,-0.11428325809538364,-0.20065393738347803,-0.1652600132273239,-0.9656226620376162
0.3958013355731964,0.012841999530792236,-0.1040568258613348,-0.1768850663575651,-0.17367559639220506,-0.9687871079434799
0.39836373925209045,0.013312771916389465,-0.10493488982319832,-0.1580081966192881,-0.17401810201192858,-0.9719830811147313
0.4026246815919876,0.011123254895210266,-0.10591997765004635,-0.18319061341169784,-0.16581147601055787,-0.9689931648783938
0.4088484197854996,0.010981380939483643,-0.10452110692858696,-0.16606049821009147,-0.1346824881039933,-0.9768748836633758
0.41196876764297485,0.011030465364456177,-0.10783480852842331,-0.14198295104626218,-0.17300699879655385,-0.974632966803198
0.4140453487634659,0.01124216616153717,-0.10166008025407791,-0.16775211786624483,-0.15083963850789117,-0.974221037755908
0.4144660383462906,0.010542646050453186,-0.1125996857881546,-0.14737291784006457,-0.14374260573203967,-0.9785802401360192
0.4137369841337204,0.009095877408981323,-0.11106327548623085,-0.13069135675043825,-0.13969311638773876,-0.9815322727779313
0.41401490569114685,0.008006736636161804,-0.11095912009477615,-0.14058381024965935,-0.13319941674828634,-0.9810678405052344
0.40958426892757416,0.008153468370437622,-0.12198572978377342,-0.13731893966114533,-0.1302120550420382,-0.9819309189205052
0.402255043387413,0.002865836024284363,-0.12422486394643784,-0.19053990931217635,-0.12991299046630897,-0.9730453010355726
0.3946853131055832,-0.0006252676248550415,-0.12712325528264046,-0.18234852094419565,-0.14453808356940323,-0.9725521884750188
0.37636394798755646,-0.003090977668762207,-0.16001104190945625,-0.15913378598981162,-0.09623951615687723,-0.9825550334136196
0.3451545983552933,-0.01391880214214325,-0.18824342265725136,-0.15160151800571867,-0.10771538404531507,-0.9825550243005895
0.3324272334575653,-0.014358624815940857,-0.2113865278661251,-0.22691628858277416,-0.1151522507368252,-0.9670827043878215
0.29833337664604187,-0.01640993356704712,-0.22496556490659714,-0.22055856024139,-0.07942442183093781,-0.9721346011335398
0.2786986976861954,-0.019407227635383606,-0.22573180869221687,-0.3273790671384562,-0.10583789380531007,-0.9389469029899455
0.2588016539812088,-0.02021738886833191,-0.22694871574640274,-0.23109507767298626,-0.0786995067326088,-0.9697429828131578
0.24582763016223907,-0.01968243718147278,-0.2603035978972912,-0.29955022478758636,-0.06223653524569694,-0.9520484633201808
0.23357032239437103,-0.022274836897850037,-0.2764997072517872,-0.31085198017019466,-0.11221626270626987,-0.9438106572869933
0.21665315330028534,-0.024001196026802063,-0.3084605485200882,-0.42955492584838667,-0.09620907183371263,-0.8979010971016141
0.16355246305465698,-0.03816913068294525,-0.3703039586544037,-0.08908414421663036,-0.19198431002185903,0.9773464278108461
0.11937151849269867,-0.04227752983570099,-0.3761792480945587,-0.6133122455197676,0.04186799498273709,-0.788730093562827
0.09257910400629044,-0.04134318232536316,-0.3822034150362015,-0.7866992572650225,0.007592853072464085,-0.6172897433141766
0.07722806185483932,-0.04061117768287659,-0.37952227145433426,-0.7542512458692091,-0.022483808016213958,-0.6562008354778557
0.05271275341510773,-0.03951999545097351,-0.371181458234787,-0.7601869078765298,-0.06528052282816903,-0.646416520853545
0.04259318858385086,-0.04063127934932709,-0.3800528347492218,-0.7553435775271669,-0.06017930708902825,-0.6525599825968073
0.03466854989528656,-0.03795936703681946,-0.3788035064935684,-0.8186483522900022,-0.014495993305205271,-0.5741121331856346
0.017828039824962616,-0.04484841227531433,-0.38030702620744705,-0.8769221608974676,0.08329833305862626,-0.4733591780419708
0.010650284588336945,-0.059206485748291016,-0.3750193491578102,-0.9933304899358557,0.006395418305490271,-0.11512443871086138
0.00010478496551513672,-0.05621269345283508,-0.3364429771900177,-0.8474455619940771,-0.06050155284992191,0.527423531480433
-0.009959384799003601,-0.0536629855632782,-0.3383474126458168,-0.9882707076083286,0.05581118713809926,0.14214823204517768
-0.028317667543888092,-0.04038363695144653,-0.34124957770109177,-0.9696739557715558,0.09316187197108781,0.22594974022818703
-0.04245416820049286,-0.0412173867225647,-0.337152823805809,-0.9290980162231832,0.19475997171786152,0.3143969301163791
-0.05034198984503746,-0.03949493169784546,-0.3284756913781166,-0.8413161757343769,0.19103326384050812,0.5056613338531294
-0.06908022612333298,-0.03454148769378662,-0.3221258670091629,-0.9103026355191888,0.20633938462112072,0.3588497876842014
-0.08013777807354927,-0.03152567148208618,-0.2725749835371971,-0.8834847280348502,0.3037335700978279,0.356652006478044
-0.08242456987500191,-0.02656736969947815,-0.27466077357530594,-0.8815615243500029,0.30296736682163267,0.36202217256249036
-0.0870086383074522,-0.02796757221221924,-0.2749522030353546,-0.9486149555174834,0.12923794056254587,0.28883770683156124
-0.08647904545068741,-0.028180375695228577,-0.27355680614709854,-0.9108885000000402,0.18982343814600747,0.3664003314656057
-0.08289500698447227,-0.03239816427230835,-0.273146316409111,-0.898670659603062,0.2057507783777497,0.38737276977808777
-0.07860198244452477,-0.027894198894500732,-0.2759275734424591,-0.8620145176538375,0.1950953823873621,0.4678341192400902
-0.08306578919291496,-0.03165620565414429,-0.2749118208885193,-0.9061829127318382,0.2547405422928878,0.33754967750712983
-0.07007761299610138,-0.026728421449661255,-0.2833835557103157,-0.9224659389120179,0.18234944278983045,0.3403017370825601
-0.06470923870801926,-0.02566474676132202,-0.28177380561828613,-0.9065390569475715,0.1235886191192636,0.4036245674544617
-0.02670292928814888,-0.0246870219707489,-0.3230534642934799,-0.9763659084898302,0.11617802511075724,0.18224236395578536
-0.0032858848571777344,-0.025033190846443176,-0.33240269869565964,-0.9466301184068655,0.08753203939657701,-0.3102088989762867
0.005725406110286713,-0.024090558290481567,-0.35017485171556473,-0.8975861884121938,0.09860346468622434,-0.42967009568218967
0.03705839812755585,-0.003861933946609497,-0.37966199219226837,-0.9734008954695088,0.16021686659711007,-0.1637719522902575
0.09784150123596191,0.0046072304248809814,-0.3932610899209976,-0.6515130760282093,-0.05010548656397648,-0.7569809455861144
0.12773245573043823,0.0060233473777771,-0.3957098722457886,0.03630135719992825,-0.19617533254101532,0.9798966529016543
0.18390096724033356,0.001237422227859497,-0.39143871515989304,-0.7623379760274317,-0.3093046035090606,-0.5684817257876473
0.20650769770145416,0.0002763420343399048,-0.3406854420900345,-0.6550129656266929,0.06717494021037759,-0.7526257650842529
0.22017496824264526,-0.00014029443264007568,-0.31499083340168,-0.4359276923079965,-0.057886747182812115,-0.8981181278538019
0.23525404930114746,-0.003181353211402893,-0.3158828765153885,-0.19845383626194799,-0.09816148850776683,-0.9751822378647261
0.26368285715579987,-0.0005335211753845215,-0.27884845435619354,-0.2733829042684957,-0.11367885669178707,-0.9551643341305047
0.2823263108730316,0.0002571791410446167,-0.2556314952671528,-0.17754446440198263,-0.06842766182166173,-0.9817309296634356
0.32247424125671387,0.0017362236976623535,-0.21986953169107437,-0.11893832841662477,-0.12589304725485742,-0.9848881229288661
0.34044012427330017,0.0021862685680389404,-0.2133450247347355,-0.11418773112051166,-0.08208496501189821,-0.9900622306605505
0.3490821272134781,0.003140747547149658,-0.22513416036963463,-0.14409717122212864,-0.08652354021238007,-0.9857736465512238
0.3604205548763275,0.011848628520965576,-0.232455275952816,-0.10722289351028604,-0.12051343104678808,-0.9869041311315971
0.37691548466682434,0.030494332313537598,-0.201369758695364,-0.13490340590878952,-0.11112919677113406,-0.984607217472638
0.3911517709493637,0.04147198796272278,-0.20144637301564217,-0.12043014493246049,-0.1185039594587019,-0.9856233518865901
0.3981992155313492,0.04894129931926727,-0.19253011047840118,-0.08454774432801615,-0.1293504415565002,-0.987987926139881
0.4182339757680893,0.05768576264381409,-0.16079900413751602,-0.10234619191757378,-0.12483434987204046,-0.9868848170338806
0.41993626952171326,0.0699344277381897,-0.15041888505220413,-0.1423339090224347,-0.14669457661722482,-0.9788880219583272
0.42826680839061737,0.07237847149372101,-0.12659506872296333,-0.1325003456962141,-0.1308992611327104,-0.9825014207752039
0.4369959533214569,0.09076540172100067,-0.11570322886109352,-0.1256048118337927,-0.15698685057174147,-0.9795808083010626
0.4369076192378998,0.08874474465847015,-0.11166151612997055,-0.08929876582884447,-0.1485681628790003,-0.9848620367341834
0.4484921246767044,0.09658950567245483,-0.06921380385756493,-0.08884974510097382,-0.14854922015650546,-0.9849055040898016
